ply
    		format ascii 1.0
    		element vertex 126
    		property float x
    		property float y
    		property float z
    		property uchar red
    		property uchar green
    		property uchar blue
    		end_header
    		

    		-0.773331 -2.380090 1.084043 255 255 255
-1.202134 1.453130 1.970102 255 255 255
2.546852 -0.653917 0.723848 255 255 255
0.459637 -2.409488 1.192107 255 255 255
1.791413 -1.301529 1.592130 255 255 255
-2.444808 -0.967975 0.723848 255 255 255
0.152342 -2.421360 1.245722 255 255 255
0.000003 -2.412306 1.272319 255 255 255
-2.373216 -1.116758 0.747472 255 255 255
-1.971605 -0.780615 1.715059 255 255 255
2.425656 1.141432 0.501342 255 255 255
0.797820 1.695472 1.981634 255 255 255
-2.661059 0.167412 0.573370 255 255 255
-2.549591 0.828405 0.501342 255 255 255
-1.447986 2.281649 0.368013 255 255 255
-0.900259 1.637565 1.986437 255 255 255
2.619091 0.499622 0.573370 255 255 255
1.397831 1.312661 1.939331 255 255 255
1.896237 0.616132 1.860828 255 255 255
-1.635687 -1.977216 0.923667 255 255 255
0.116361 1.849627 2.000838 255 255 255
-2.015722 0.126818 1.832702 255 255 255
0.152346 -2.421360 1.245722 255 255 255
-1.329435 -1.829813 1.523944 255 255 255
-2.662004 -0.000007 0.593085 255 255 255
-2.600324 -0.496045 0.655949 255 255 255
1.112630 1.531417 1.963373 255 255 255
-1.004034 1.582105 1.981634 255 255 255
0.995133 2.513434 0.361075 255 255 255
1.983931 0.378463 1.832702 255 255 255
1.347881 -1.855187 1.476317 255 255 255
1.845094 1.964832 0.416026 255 255 255
-0.722879 -2.224799 1.402045 255 255 255
-0.982982 -2.088948 1.451915 255 255 255
-2.626729 0.501068 0.535946 255 255 255
2.189085 -1.389232 0.846142 255 255 255
-0.339177 2.684814 0.338744 255 255 255
-1.919244 0.492777 1.873950 255 255 255
-0.507055 2.658047 0.340145 255 255 255
1.150591 2.445143 0.368013 255 255 255
0.765883 -2.357137 1.138131 255 255 255
-2.272379 1.442088 0.441241 255 255 255
-0.461322 1.796731 1.999239 255 255 255
0.732125 -2.253227 1.350917 255 255 255
-1.551334 1.127109 1.939331 255 255 255
2.494472 -0.810500 0.747472 255 255 255
-1.847347 1.967215 0.394196 255 255 255
0.866697 -2.189008 1.376626 255 255 255
2.061228 0.000007 1.785877 255 255 255
1.065546 -2.264394 1.084043 255 255 255
-1.626946 1.032491 1.930033 255 255 255
0.462683 1.802062 1.994119 255 255 255
-0.309047 -2.446413 1.165148 255 255 255
-1.990747 0.251489 1.847078 255 255 255
-2.292295 -1.260207 0.771544 255 255 255
2.432169 -0.962960 0.771544 255 255 255
-2.652144 -0.166866 0.613436 255 255 255
1.963434 1.843794 0.428218 255 255 255
1.842346 0.729444 1.873950 255 255 255
1.119631 -2.036587 1.427150 255 255 255
0.348038 1.824521 1.997000 255 255 255
1.353102 -2.132142 1.030097 255 255 255
-1.829634 -1.161123 1.655973 255 255 255
-0.619401 -2.412436 1.111085 255 255 255
-0.347271 1.820457 2.000838 255 255 255
-1.765832 -1.282954 1.635202 255 255 255
-1.151340 2.446707 0.355047 255 255 255
-1.104728 -2.009497 1.476317 255 255 255
-0.585498 -2.280375 1.376625 255 255 255
-1.997700 -1.652650 0.846142 255 255 255
2.043023 0.128543 1.802096 255 255 255
-1.526639 -1.625708 1.569861 255 255 255
-2.506720 -0.814489 0.700701 255 255 255
1.301333 2.367126 0.375851 255 255 255
1.637253 -1.537472 1.547126 255 255 255
2.589037 -0.493882 0.700701 255 255 255
0.305778 -2.420458 1.218975 255 255 255
-0.232148 1.837642 2.001798 255 255 255
-1.932582 -0.909405 1.695915 255 255 255
-2.044974 -0.258341 1.785877 255 255 255
1.623165 -1.962064 0.976552 255 255 255
1.943527 0.499021 1.847078 255 255 255
-2.430836 1.143857 0.469724 255 255 255
0.506912 2.657352 0.345744 255 255 255
-2.631546 -0.332449 0.634399 255 255 255
1.718362 -1.421543 1.569861 255 255 255
-2.043023 -0.128537 1.802096 255 255 255
-0.443939 -2.327221 1.350917 255 255 255
-1.614157 -1.515796 1.592130 255 255 255
-2.495313 0.987957 0.485150 255 255 255
0.672634 2.619757 0.349935 255 255 255
-1.966093 1.846274 0.404682 255 255 255
0.339107 2.684349 0.342480 255 255 255
1.446739 2.279705 0.384583 255 255 255
-0.298768 -2.365011 1.324944 255 255 255
1.586213 2.183244 0.394196 255 255 255
2.620809 -0.331081 0.678058 255 255 255
2.017180 0.254836 1.817707 255 255 255
0.576086 1.773036 1.990599 255 255 255
-2.649291 0.334676 0.554316 255 255 255
2.489544 0.985685 0.518281 255 255 255
-2.033214 -0.000001 1.817707 255 255 255
1.856238 -1.177996 1.613916 255 255 255
1.237054 -1.949271 1.451915 255 255 255
0.613236 -2.388386 1.165148 255 255 255
-2.076811 1.718079 0.416026 255 255 255
2.053898 -0.527344 1.715059 255 255 255
0.996029 -2.116652 1.402045 255 255 255
-1.385439 1.301013 1.956002 255 255 255
2.641992 -0.166216 0.655949 255 255 255
2.000280 -0.791959 1.676215 255 255 255
1.211179 -2.203120 1.057036 255 255 255
-0.793771 1.686849 1.990599 255 255 255
2.652144 0.166863 0.613436 255 255 255
1.548295 -1.648756 1.523944 255 255 255
-1.295799 1.379886 1.963373 255 255 255
-0.573974 1.766511 1.996999 255 255 255
-1.873209 0.608642 1.886441 255 255 255
-1.302313 2.368886 0.361075 255 255 255
0.835596 2.571718 0.355047 255 255 255
0.169904 2.700639 0.340145 255 255 255
-1.470724 1.216689 1.947987 255 255 255
0.232487 1.840383 1.999239 255 255 255
2.073712 1.715530 0.441241 255 255 255
-1.587760 2.185353 0.375851 255 255 255
-2.179047 1.583162 0.428218 255 255 255
